  X[km]   Y[km]   F[nT]
-1.960000  .760000  -.046874
-1.960000  .800000  -.240344
-1.960000  .840000  -.148982
-1.960000  .880000  -.026871
-1.960000  .920000  .028695
-1.960000  .960000  -.148593
-1.960000  1.000000  -.162852
-1.960000  1.040000  -.327390
-1.960000  1.080000  -.266421
-1.960000  1.120000  -.294355
-1.960000  1.160000  -.496997
-1.960000  1.200000  .000603
-1.960000  1.240000  -.530696
-1.960000  1.280000  -.424189
-1.960000  1.320000  -.256889
-1.960000  1.360000  -.112998
-1.960000  1.400000  -.299438
-1.960000  1.440000  -.461435
-1.960000  1.480000  -.521811
-1.960000  1.520000  -.271686
-1.960000  1.560000  -.317666
-1.960000  1.600000  -.332052
-1.960000  1.640000  .162926
-1.960000  1.680000  -.402318
-1.960000  1.720000  -.185271
-1.960000  1.760000  -.073794
-1.960000  1.800000  -.343109
-1.960000  1.840000  -.489625
-1.960000  1.880000  -.800421
-1.960000  1.920000  -.440236
-1.960000  1.960000  -.728801
-1.960000  2.000000  -.573341
-1.960000  2.040000  -.482806
-1.960000  2.080000  -.311487
-1.960000  2.120000  -1.057297
-1.960000  2.160000  -.756797
-1.960000  2.200000  -.554537
-1.960000  2.240000  -.342082
-1.960000  2.280000  -.601874
-1.960000  2.320000  -.411237
-1.960000  2.360000  -.319220
-1.960000  2.400000  -.824567
-1.960000  2.440000  -.600154
-1.960000  2.480000  -.700309
-1.960000  2.520000  -.496252
-1.960000  2.560000  -.666453
-1.960000  2.600000  -.150848
-1.960000  2.640000  -.614354
-1.960000  2.680000  -.537479
-1.960000  2.720000  -.565357
-1.960000  2.760000  -.426042
-1.960000  2.800000  -.483091
-1.960000  2.840000  -.022506
-1.960000  2.880000  -.381437
-1.960000  2.920000  -.309481
-1.960000  2.960000  -.293481
-1.960000  3.000000  -.374535
-1.960000  3.040000  -.612844
-1.960000  3.080000  -.665566
-1.960000  3.120000  -.511916
-1.960000  3.160000  -.340434
-1.960000  3.200000  -.334837
-1.960000  3.240000  -.198233
-1.960000  3.280000  -.381390
-1.960000  3.320000  -.140935
-1.960000  3.360000  -.064266
-1.960000  3.400000  -.264561
-1.960000  3.440000  -.337773
-1.960000  3.480000  -.139489
-1.960000  3.520000  -.269594
-1.960000  3.560000  -.547920
-1.960000  3.600000  -.427138
-1.960000  3.640000  -.205731
-1.960000  3.680000  -.311329
-1.960000  3.720000  .074728
-1.960000  3.760000  -.288886
-1.960000  3.800000  -.159264
-1.960000  3.840000  -.407098
-1.960000  3.880000  -.057617
-1.960000  3.920000  -.605704
-1.960000  3.960000  -.138505
-1.960000  4.000000  -.199312
-1.920000  .000000  .312963
-1.920000  .040000  -.000073
-1.920000  .080000  .007985
-1.920000  .120000  .431448
-1.920000  .160000  .054683
-1.920000  .200000  -.252227
-1.920000  .240000  -.010761
-1.920000  .280000  -.042769
-1.920000  .320000  .156230
-1.920000  .360000  -.066145
-1.920000  .400000  .203683
-1.920000  .440000  .112224
-1.920000  .480000  .079096
-1.920000  .520000  -.050892
-1.920000  .560000  -.227742
-1.920000  .600000  -.022450
-1.920000  .640000  .131781
-1.920000  .680000  -.045372
-1.920000  .720000  .087162
-1.920000  .760000  -.014111
-1.920000  .800000  -.236615
-1.920000  .840000  .014903
-1.920000  .880000  .008343
-1.920000  .920000  -.034049
-1.920000  .960000  .067458
-1.920000  1.000000  -.109118
-1.920000  1.040000  -.275227
-1.920000  1.080000  .135752
-1.920000  1.120000  -.167274
-1.920000  1.160000  -.255975
-1.920000  1.200000  -.258872
-1.920000  1.240000  .030904
-1.920000  1.280000  -.168951
-1.920000  1.320000  -.425625
-1.920000  1.360000  -.424354
-1.920000  1.400000  .074715
-1.920000  1.440000  .122943
-1.920000  1.480000  -.360349
-1.920000  1.520000  -.283007
-1.920000  1.560000  -.354040
-1.920000  1.600000  -.414407
-1.920000  1.640000  -.369294
-1.920000  1.680000  -.006242
-1.920000  1.720000  -.463988
-1.920000  1.760000  -.669861
-1.920000  1.800000  -.263473
-1.920000  1.840000  -.572070
-1.920000  1.880000  -.532078
-1.920000  1.920000  -.626423
-1.920000  1.960000  -.196594
-1.920000  2.000000  -.355504
-1.920000  2.040000  -.514388
-1.920000  2.080000  -.357683
-1.920000  2.120000  -.487517
-1.920000  2.160000  -.907675
-1.920000  2.200000  -.401862
-1.920000  2.240000  -.575039
-1.920000  2.280000  -.289751
-1.920000  2.320000  -.866377
-1.920000  2.360000  -.611366
-1.920000  2.400000  -.395294
-1.920000  2.440000  -.782541
-1.920000  2.480000  -.288183
-1.920000  2.520000  -.753650
-1.920000  2.560000  -.686305
-1.920000  2.600000  -.367328
-1.920000  2.640000  -.516370
-1.920000  2.680000  -.732499
-1.920000  2.720000  -.186855
-1.920000  2.760000  -.238784
-1.920000  2.800000  -.557564
-1.920000  2.840000  -.477856
-1.920000  2.880000  -.524566
-1.920000  2.920000  -.411306
-1.920000  2.960000  -.448078
-1.920000  3.000000  -.735196
-1.920000  3.040000  -.320477
-1.920000  3.080000  -.471329
-1.920000  3.120000  -.142889
-1.920000  3.160000  -.644166
-1.920000  3.200000  -.388565
-1.920000  3.240000  -.331178
-1.920000  3.280000  -.780691
-1.920000  3.320000  -.125577
-1.920000  3.360000  -.552259
-1.920000  3.400000  -.415490
-1.920000  3.440000  -.269070
-1.920000  3.480000  -.141227
-1.920000  3.520000  -.127888
-1.920000  3.560000  -.434569
-1.920000  3.600000  -.218659
-1.920000  3.640000  -.340802
-1.920000  3.680000  -.214921
-1.920000  3.720000  .135276
-1.920000  3.760000  .013230
-1.920000  3.800000  -.334184
-1.920000  3.840000  -.372724
-1.920000  3.880000  -.623987
-1.920000  3.920000  -.186863
-1.920000  3.960000  -.121873
-1.920000  4.000000  -.009055
-1.880000  .000000  .101961
-1.880000  .040000  .235993
-1.880000  .080000  .011352
-1.880000  .120000  .185196
-1.880000  .160000  -.025390
-1.880000  .200000  .085176
-1.880000  .240000  -.085197
-1.880000  .280000  .148188
-1.880000  .320000  -.335856
-1.880000  .360000  .006431
-1.880000  .400000  -.046122
-1.880000  .440000  -.175563
-1.880000  .480000  .168620
-1.880000  .520000  .141819
-1.880000  .560000  -.036917
-1.880000  .600000  .250680
-1.880000  .640000  -.116524
-1.880000  .680000  .229418
-1.880000  .720000  -.062274
-1.880000  .760000  .087822
-1.880000  .800000  -.216321
-1.880000  .840000  -.181495
-1.880000  .880000  .107163
-1.880000  .920000  -.325028
-1.880000  .960000  -.012205
-1.880000  1.000000  -.152013
-1.880000  1.040000  -.067793
-1.880000  1.080000  -.218734
-1.880000  1.120000  .116148
-1.880000  1.160000  .012784
-1.880000  1.200000  .345849
-1.880000  1.240000  .046379
-1.880000  1.280000  .381198
-1.880000  1.320000  -.149941
-1.880000  1.360000  -.430308
-1.880000  1.400000  -.062287
-1.880000  1.440000  -.172785
-1.880000  1.480000  -.607593
-1.880000  1.520000  -.382016
-1.880000  1.560000  -.326167
-1.880000  1.600000  -.380026
-1.880000  1.640000  -.863761
-1.880000  1.680000  -.124036
-1.880000  1.720000  -.340174
-1.880000  1.760000  -.507556
-1.880000  1.800000  -.777621
-1.880000  1.840000  -.792811
-1.880000  1.880000  -.627733
-1.880000  1.920000  -.567370
-1.880000  1.960000  -.385946
-1.880000  2.000000  -.713956
-1.880000  2.040000  -.527902
-1.880000  2.080000  -.865076
-1.880000  2.120000  -.943258
-1.880000  2.160000  -.641336
-1.880000  2.200000  -.390314
-1.880000  2.240000  -.670696
-1.880000  2.280000  -.758387
-1.880000  2.320000  -.842019
-1.880000  2.360000  -.203166
-1.880000  2.400000  -.395554
-1.880000  2.440000  -.470024
-1.880000  2.480000  -.810854
-1.880000  2.520000  -.343833
-1.880000  2.560000  -.140083
-1.880000  2.600000  -.518325
-1.880000  2.640000  -.633856
-1.880000  2.680000  -.713251
-1.880000  2.720000  -.503553
-1.880000  2.760000  -.534324
-1.880000  2.800000  -.701002
-1.880000  2.840000  -.496272
-1.880000  2.880000  -.876409
-1.880000  2.920000  -.637597
-1.880000  2.960000  -.670771
-1.880000  3.000000  -.518020
-1.880000  3.040000  -.607171
-1.880000  3.080000  -.458637
-1.880000  3.120000  -.252703
-1.880000  3.160000  -.777973
-1.880000  3.200000  -.205964
-1.880000  3.240000  -.516801
-1.880000  3.280000  -.311537
-1.880000  3.320000  -.238773
-1.880000  3.360000  -.076150
-1.880000  3.400000  -.371103
-1.880000  3.440000  -.372981
-1.880000  3.480000  -.109102
-1.880000  3.520000  -.335395
-1.880000  3.560000  -.468374
-1.880000  3.600000  -.127043
-1.880000  3.640000  -.022477
-1.880000  3.680000  -.386552
-1.880000  3.720000  -.092042
-1.880000  3.760000  -.313987
-1.880000  3.800000  -.371736
-1.880000  3.840000  -.036734
-1.880000  3.880000  -.301477
-1.880000  3.920000  -.328076
-1.880000  3.960000  .006314
-1.880000  4.000000  .020040
-1.840000  .000000  .024299
-1.840000  .040000  .323342
-1.840000  .080000  .404336
-1.840000  .120000  .086719
-1.840000  .160000  .171739
-1.840000  .200000  .043897
-1.840000  .240000  -.080997
-1.840000  .280000  -.154275
-1.840000  .320000  .089962
-1.840000  .360000  .214810
-1.840000  .400000  -.111931
-1.840000  .440000  .118817
-1.840000  .480000  .246921
-1.840000  .520000  .182210
-1.840000  .560000  .111416
-1.840000  .600000  -.024424
-1.840000  .640000  .081750
-1.840000  .680000  .011545
-1.840000  .720000  -.193887
-1.840000  .760000  -.143592
-1.840000  .800000  -.202635
-1.840000  .840000  .169741
-1.840000  .880000  -.390241
-1.840000  .920000  .104086
-1.840000  .960000  -.091288
-1.840000  1.000000  -.098885
-1.840000  1.040000  -.222025
-1.840000  1.080000  -.097484
-1.840000  1.120000  .144998
-1.840000  1.160000  -.302102
-1.840000  1.200000  .050489
-1.840000  1.240000  -.381763
-1.840000  1.280000  -.332536
-1.840000  1.320000  -.465260
-1.840000  1.360000  -.030162
-1.840000  1.400000  -.174302
-1.840000  1.440000  -.400620
-1.840000  1.480000  .008759
-1.840000  1.520000  -.463606
-1.840000  1.560000  -.567240
-1.840000  1.600000  -.407943
-1.840000  1.640000  -.514043
-1.840000  1.680000  -.637184
-1.840000  1.720000  -.185127
-1.840000  1.760000  -.480552
-1.840000  1.800000  -.295575
-1.840000  1.840000  -.495037
-1.840000  1.880000  -.243093
-1.840000  1.920000  -.630661
-1.840000  1.960000  -.683141
-1.840000  2.000000  -.556153
-1.840000  2.040000  -.259036
-1.840000  2.080000  -.914583
-1.840000  2.120000  -.837064
-1.840000  2.160000  -.758438
-1.840000  2.200000  -.586353
-1.840000  2.240000  -.729672
-1.840000  2.280000  -.609185
-1.840000  2.320000  -.974062
-1.840000  2.360000  -.688695
-1.840000  2.400000  -.773404
-1.840000  2.440000  -.668475
-1.840000  2.480000  -.390824
-1.840000  2.520000  -.717581
-1.840000  2.560000  -.722439
-1.840000  2.600000  -.262015
-1.840000  2.640000  -.704886
-1.840000  2.680000  -.641153
-1.840000  2.720000  -.707374
-1.840000  2.760000  -.631075
-1.840000  2.800000  -.488733
-1.840000  2.840000  -.690730
-1.840000  2.880000  -.627640
-1.840000  2.920000  -.378849
-1.840000  2.960000  -.918191
-1.840000  3.000000  -.058087
-1.840000  3.040000  -.495027
-1.840000  3.080000  -.435707
-1.840000  3.120000  -.306447
-1.840000  3.160000  -.434969
-1.840000  3.200000  -.371920
-1.840000  3.240000  -.424274
-1.840000  3.280000  -.357892
-1.840000  3.320000  -.223799
-1.840000  3.360000  -.195196
-1.840000  3.400000  -.306986
-1.840000  3.440000  -.178518
-1.840000  3.480000  -.487158
-1.840000  3.520000  -.343944
-1.840000  3.560000  -.332345
-1.840000  3.600000  -.412143
-1.840000  3.640000  -.277543
-1.840000  3.680000  -.326005
-1.840000  3.720000  -.205729
-1.840000  3.760000  -.091713
-1.840000  3.800000  .146706
-1.840000  3.840000  -.147325
-1.840000  3.880000  -.021311
-1.840000  3.920000  -.093858
-1.840000  3.960000  -.188681
-1.840000  4.000000  -.347012
-1.800000  .000000  -.040871
-1.800000  .040000  .139223
-1.800000  .080000  .112591
-1.800000  .120000  .270824
-1.800000  .160000  -.087351
-1.800000  .200000  .109016
-1.800000  .240000  .073426
-1.800000  .280000  -.213501
-1.800000  .320000  .194489
-1.800000  .360000  -.001307
-1.800000  .400000  .589608
-1.800000  .440000  -.076127
-1.800000  .480000  .170745
-1.800000  .520000  .130069
-1.800000  .560000  -.162622
-1.800000  .600000  .043351
-1.800000  .640000  .388810
-1.800000  .680000  .241364
-1.800000  .720000  -.251068
-1.800000  .760000  -.000240
-1.800000  .800000  .051126
-1.800000  .840000  -.058165
-1.800000  .880000  -.258486
-1.800000  .920000  .057752
-1.800000  .960000  .072785
-1.800000  1.000000  -.119513
-1.800000  1.040000  .133994
-1.800000  1.080000  .142098
-1.800000  1.120000  -.096584
-1.800000  1.160000  -.189500
-1.800000  1.200000  .233427
-1.800000  1.240000  -.156773
-1.800000  1.280000  -.289604
-1.800000  1.320000  -.053304
-1.800000  1.360000  -.500267
-1.800000  1.400000  -.219075
-1.800000  1.440000  -.261416
-1.800000  1.480000  -.171587
-1.800000  1.520000  -.380360
-1.800000  1.560000  -.680862
-1.800000  1.600000  -.344219
-1.800000  1.640000  -.179786
-1.800000  1.680000  -.389789
-1.800000  1.720000  -.239923
-1.800000  1.760000  -.381567
-1.800000  1.800000  -.762109
-1.800000  1.840000  -.616353
-1.800000  1.880000  -.436508
-1.800000  1.920000  -.655868
-1.800000  1.960000  -.675434
-1.800000  2.000000  -.720493
-1.800000  2.040000  -.264074
-1.800000  2.080000  -.559576
-1.800000  2.120000  -.724538
-1.800000  2.160000  -.414368
-1.800000  2.200000  -.642338
-1.800000  2.240000  -.493933
-1.800000  2.280000  -.787112
-1.800000  2.320000  -.573323
-1.800000  2.360000  -.547886
-1.800000  2.400000  -.406676
-1.800000  2.440000  -.678818
-1.800000  2.480000  -.630478
-1.800000  2.520000  -.837811
-1.800000  2.560000  -.880579
-1.800000  2.600000  -.703635
-1.800000  2.640000  -.461950
-1.800000  2.680000  -.358122
-1.800000  2.720000  -.190278
-1.800000  2.760000  -.876279
-1.800000  2.800000  -.549056
-1.800000  2.840000  -.416181
-1.800000  2.880000  -.758389
-1.800000  2.920000  -.466592
-1.800000  2.960000  -.761786
-1.800000  3.000000  -.461172
-1.800000  3.040000  -.629499
-1.800000  3.080000  -.262727
-1.800000  3.120000  -.407848
-1.800000  3.160000  -.524947
-1.800000  3.200000  -.135773
-1.800000  3.240000  -.502103
-1.800000  3.280000  -.442441
-1.800000  3.320000  -.158289
-1.800000  3.360000  -.189444
-1.800000  3.400000  -.391692
-1.800000  3.440000  -.380077
-1.800000  3.480000  -.376730
-1.800000  3.520000  -.442056
-1.800000  3.560000  -.368228
-1.800000  3.600000  -.158000
-1.800000  3.640000  -.531137
-1.800000  3.680000  -.446291
-1.800000  3.720000  -.571175
-1.800000  3.760000  -.400372
-1.800000  3.800000  .026747
-1.800000  3.840000  -.339588
-1.800000  3.880000  -.227022
-1.800000  3.920000  .065140
-1.800000  3.960000  -.090793
-1.800000  4.000000  -.236363
-1.760000  .000000  .424928
-1.760000  .040000  -.017068
-1.760000  .080000  .308705
-1.760000  .120000  .491820
-1.760000  .160000  .327910
-1.760000  .200000  .001608
-1.760000  .240000  .169331
-1.760000  .280000  -.128141
-1.760000  .320000  -.321964
-1.760000  .360000  .085009
-1.760000  .400000  -.006595
-1.760000  .440000  .147486
-1.760000  .480000  .555323
-1.760000  .520000  .089737
-1.760000  .560000  .161885
-1.760000  .600000  .174032
-1.760000  .640000  -.024783
-1.760000  .680000  .129313
-1.760000  .720000  .001279
-1.760000  .760000  .096437
-1.760000  .800000  -.054755
-1.760000  .840000  .274027
-1.760000  .880000  .167984
-1.760000  .920000  -.098188
-1.760000  .960000  .024346
-1.760000  1.000000  -.260745
-1.760000  1.040000  .193287
-1.760000  1.080000  .032665
-1.760000  1.120000  -.246313
-1.760000  1.160000  .208996
-1.760000  1.200000  .007515
-1.760000  1.240000  -.405150
-1.760000  1.280000  -.115746
-1.760000  1.320000  -.050212
-1.760000  1.360000  -.338323
-1.760000  1.400000  -.282202
-1.760000  1.440000  -.464311
-1.760000  1.480000  -.124193
-1.760000  1.520000  -.151137
-1.760000  1.560000  .022313
-1.760000  1.600000  -.213076
-1.760000  1.640000  -.420443
-1.760000  1.680000  -.401786
-1.760000  1.720000  -.642970
-1.760000  1.760000  -.271349
-1.760000  1.800000  -.454271
-1.760000  1.840000  -.783959
-1.760000  1.880000  -.368906
-1.760000  1.920000  -.373844
-1.760000  1.960000  -.767261
-1.760000  2.000000  -.973952
-1.760000  2.040000  -.714128
-1.760000  2.080000  -.690540
-1.760000  2.120000  -.868006
-1.760000  2.160000  -.734462
-1.760000  2.200000  -.497693
-1.760000  2.240000  -.434351
-1.760000  2.280000  -.402344
-1.760000  2.320000  -.846106
-1.760000  2.360000  -.878355
-1.760000  2.400000  -.896774
-1.760000  2.440000  -.668126
-1.760000  2.480000  -.823504
-1.760000  2.520000  -.512184
-1.760000  2.560000  -.575788
-1.760000  2.600000  -1.072921
-1.760000  2.640000  -.840228
-1.760000  2.680000  -.479232
-1.760000  2.720000  -.494310
-1.760000  2.760000  -.487461
-1.760000  2.800000  -.414767
-1.760000  2.840000  -.406046
-1.760000  2.880000  -.625464
-1.760000  2.920000  -.641107
-1.760000  2.960000  -.311643
-1.760000  3.000000  -.229926
-1.760000  3.040000  -.608609
-1.760000  3.080000  -.472524
-1.760000  3.120000  -.521672
-1.760000  3.160000  -.415437
-1.760000  3.200000  -.562275
-1.760000  3.240000  -.504305
-1.760000  3.280000  -.347917
-1.760000  3.320000  -.081825
-1.760000  3.360000  -.206244
-1.760000  3.400000  -.302300
-1.760000  3.440000  -.211308
-1.760000  3.480000  -.493034
-1.760000  3.520000  -.152676
-1.760000  3.560000  -.323868
-1.760000  3.600000  -.410384
-1.760000  3.640000  -.518794
-1.760000  3.680000  -.370182
-1.760000  3.720000  -.127867
-1.760000  3.760000  .230326
-1.760000  3.800000  -.129269
-1.760000  3.840000  -.354657
-1.760000  3.880000  .113821
-1.760000  3.920000  -.431095
-1.760000  3.960000  -.174829
-1.760000  4.000000  -.050031
-1.720000  .000000  .248230
-1.720000  .040000  -.226954
-1.720000  .080000  -.199267
-1.720000  .120000  .046660
-1.720000  .160000  -.008948
-1.720000  .200000  .037417
-1.720000  .240000  .105052
-1.720000  .280000  -.314885
-1.720000  .320000  -.423011
-1.720000  .360000  .385122
-1.720000  .400000  .343675
-1.720000  .440000  -.319503
-1.720000  .480000  .159378
-1.720000  .520000  -.162401
-1.720000  .560000  -.297452
-1.720000  .600000  .532016
-1.720000  .640000  .272123
-1.720000  .680000  -.021364
-1.720000  .720000  -.093210
-1.720000  .760000  .001209
-1.720000  .800000  .040344
-1.720000  .840000  -.185628
-1.720000  .880000  -.081815
-1.720000  .920000  .226104
-1.720000  .960000  -.556387
-1.720000  1.000000  .288860
-1.720000  1.040000  .238703
-1.720000  1.080000  -.112975
-1.720000  1.120000  -.257820
-1.720000  1.160000  -.044033
-1.720000  1.200000  -.282453
-1.720000  1.240000  .181771
-1.720000  1.280000  .134231
-1.720000  1.320000  -.031715
-1.720000  1.360000  -.201627
-1.720000  1.400000  -.527960
-1.720000  1.440000  -.465776
-1.720000  1.480000  -.185368
-1.720000  1.520000  .010662
-1.720000  1.560000  -.318076
-1.720000  1.600000  -.304338
-1.720000  1.640000  -.469927
-1.720000  1.680000  -.529888
-1.720000  1.720000  -.666365
-1.720000  1.760000  -.254224
-1.720000  1.800000  -.658520
-1.720000  1.840000  -.947623
-1.720000  1.880000  -.435703
-1.720000  1.920000  -.520520
-1.720000  1.960000  -.760401
-1.720000  2.000000  -.928975
-1.720000  2.040000  -.541016
-1.720000  2.080000  -.542221
-1.720000  2.120000  -.788439
-1.720000  2.160000  -.584030
-1.720000  2.200000  -.642824
-1.720000  2.240000  -.740283
-1.720000  2.280000  -.629334
-1.720000  2.320000  -.897187
-1.720000  2.360000  -.514165
-1.720000  2.400000  -.836079
-1.720000  2.440000  -.747756
-1.720000  2.480000  -.723368
-1.720000  2.520000  -.845038
-1.720000  2.560000  -.747564
-1.720000  2.600000  -.977635
-1.720000  2.640000  -.558521
-1.720000  2.680000  -.629793
-1.720000  2.720000  -.517576
-1.720000  2.760000  -.767192
-1.720000  2.800000  -.647448
-1.720000  2.840000  -.440613
-1.720000  2.880000  -.769863
-1.720000  2.920000  -.487005
-1.720000  2.960000  -.548620
-1.720000  3.000000  -.749508
-1.720000  3.040000  -.375783
-1.720000  3.080000  -.321038
-1.720000  3.120000  -.547986
-1.720000  3.160000  -.408169
-1.720000  3.200000  -.431073
-1.720000  3.240000  -.431823
-1.720000  3.280000  -.429937
-1.720000  3.320000  -.363049
-1.720000  3.360000  -.530425
-1.720000  3.400000  -.635081
-1.720000  3.440000  -.253044
-1.720000  3.480000  -.240460
-1.720000  3.520000  -.088328
-1.720000  3.560000  -.186638
-1.720000  3.600000  -.382874
-1.720000  3.640000  -.368214
-1.720000  3.680000  -.380421
-1.720000  3.720000  -.505120
-1.720000  3.760000  .056633
-1.720000  3.800000  -.208542
-1.720000  3.840000  -.460989
-1.720000  3.880000  -.280021
-1.720000  3.920000  -.251633
-1.720000  3.960000  -.600088
-1.720000  4.000000  -.036232
-1.680000  .000000  .156759
-1.680000  .040000  .235706
-1.680000  .080000  .342891
-1.680000  .120000  .151676
-1.680000  .160000  -.115469
-1.680000  .200000  .160569
-1.680000  .240000  -.057688
-1.680000  .280000  .301337
-1.680000  .320000  .110602
-1.680000  .360000  .020755
-1.680000  .400000  -.049865
-1.680000  .440000  -.287123
-1.680000  .480000  .296376
-1.680000  .520000  .115281
-1.680000  .560000  .036426
-1.680000  .600000  .182049
-1.680000  .640000  -.029143
-1.680000  .680000  .084572
-1.680000  .720000  .348246
-1.680000  .760000  .201024
-1.680000  .800000  .458798
-1.680000  .840000  .160298
-1.680000  .880000  .146892
-1.680000  .920000  .179536
-1.680000  .960000  .018081
-1.680000  1.000000  .062132
-1.680000  1.040000  .079279
-1.680000  1.080000  .154900
-1.680000  1.120000  -.028335
-1.680000  1.160000  -.025023
-1.680000  1.200000  -.367837
-1.680000  1.240000  -.281959
-1.680000  1.280000  .212190
-1.680000  1.320000  .061218
-1.680000  1.360000  -.420459
-1.680000  1.400000  -.675184
-1.680000  1.440000  -.333524
-1.680000  1.480000  -.271408
-1.680000  1.520000  -.146166
-1.680000  1.560000  -.111231
-1.680000  1.600000  -.210270
-1.680000  1.640000  -.283661
-1.680000  1.680000  -.507328
-1.680000  1.720000  -.272998
-1.680000  1.760000  -.271889
-1.680000  1.800000  .011593
-1.680000  1.840000  -.417769
-1.680000  1.880000  -.832278
-1.680000  1.920000  -.628943
-1.680000  1.960000  -.741250
-1.680000  2.000000  -1.068387
-1.680000  2.040000  -.576898
-1.680000  2.080000  -.320115
-1.680000  2.120000  -.354544
-1.680000  2.160000  -.839696
-1.680000  2.200000  -.991826
-1.680000  2.240000  -.617210
-1.680000  2.280000  -.817784
-1.680000  2.320000  -.824326
-1.680000  2.360000  -.660697
-1.680000  2.400000  -.945606
-1.680000  2.440000  -.744659
-1.680000  2.480000  -.802498
-1.680000  2.520000  -.628590
-1.680000  2.560000  -.404088
-1.680000  2.600000  -.693453
-1.680000  2.640000  -.754411
-1.680000  2.680000  -1.125381
-1.680000  2.720000  -.615230
-1.680000  2.760000  -.821871
-1.680000  2.800000  -.595379
-1.680000  2.840000  -.772426
-1.680000  2.880000  -.898889
-1.680000  2.920000  -.812831
-1.680000  2.960000  -.472169
-1.680000  3.000000  -.612031
-1.680000  3.040000  -.425016
-1.680000  3.080000  -.165835
-1.680000  3.120000  -.457950
-1.680000  3.160000  -.518262
-1.680000  3.200000  -.461867
-1.680000  3.240000  -.557405
-1.680000  3.280000  -.352863
-1.680000  3.320000  -.230126
-1.680000  3.360000  -.416836
-1.680000  3.400000  -.422571
-1.680000  3.440000  -.408522
-1.680000  3.480000  -.355174
-1.680000  3.520000  -.153477
-1.680000  3.560000  -.300854
-1.680000  3.600000  -.469538
-1.680000  3.640000  -.630718
-1.680000  3.680000  -.592599
-1.680000  3.720000  .104088
-1.680000  3.760000  -.657733
-1.680000  3.800000  -.229483
-1.680000  3.840000  .154051
-1.680000  3.880000  .059461
-1.680000  3.920000  -.165729
-1.680000  3.960000  -.432090
-1.680000  4.000000  -.289533
-1.640000  .000000  .342808
-1.640000  .040000  .028749
-1.640000  .080000  -.298615
-1.640000  .120000  .260020
-1.640000  .160000  .131009
-1.640000  .200000  .213838
-1.640000  .240000  -.206516
-1.640000  .280000  -.274719
-1.640000  .320000  .054375
-1.640000  .360000  .129080
-1.640000  .400000  .237968
-1.640000  .440000  .062574
-1.640000  .480000  -.086332
-1.640000  .520000  -.000418
-1.640000  .560000  -.030686
-1.640000  .600000  -.187509
-1.640000  .640000  -.203302
-1.640000  .680000  -.122566
-1.640000  .720000  .163122
-1.640000  .760000  .040021
-1.640000  .800000  .154720
-1.640000  .840000  -.114407
-1.640000  .880000  .216630
-1.640000  .920000  -.119288
-1.640000  .960000  .022575
-1.640000  1.000000  -.065934
-1.640000  1.040000  -.177738
-1.640000  1.080000  -.202762
-1.640000  1.120000  .373805
-1.640000  1.160000  -.206021
-1.640000  1.200000  -.056885
-1.640000  1.240000  -.351589
-1.640000  1.280000  -.074388
-1.640000  1.320000  -.294208
-1.640000  1.360000  -.476786
-1.640000  1.400000  -.142425
-1.640000  1.440000  -.349769
-1.640000  1.480000  -.367308
-1.640000  1.520000  -.079186
-1.640000  1.560000  -.458313
-1.640000  1.600000  -.545377
-1.640000  1.640000  -.304569
-1.640000  1.680000  -.761053
-1.640000  1.720000  -.623032
-1.640000  1.760000  -.753656
-1.640000  1.800000  -.549067
-1.640000  1.840000  -.692727
-1.640000  1.880000  -.692943
-1.640000  1.920000  -.596595
-1.640000  1.960000  -.737028
-1.640000  2.000000  -.721516
-1.640000  2.040000  -.681306
-1.640000  2.080000  -.800486
-1.640000  2.120000  -.453217
-1.640000  2.160000  -.807001
-1.640000  2.200000  -.516919
-1.640000  2.240000  -.674073
-1.640000  2.280000  -.796025
-1.640000  2.320000  -1.054013
-1.640000  2.360000  -.786606
-1.640000  2.400000  -.733543
-1.640000  2.440000  -.969321
-1.640000  2.480000  -1.048466
-1.640000  2.520000  -.743801
-1.640000  2.560000  -.969182
-1.640000  2.600000  -.844799
-1.640000  2.640000  -.798191
-1.640000  2.680000  -1.186675
-1.640000  2.720000  -1.116708
-1.640000  2.760000  -.773379
-1.640000  2.800000  -1.026248
-1.640000  2.840000  -.794451
-1.640000  2.880000  -.876075
-1.640000  2.920000  -.482916
-1.640000  2.960000  -.684016
-1.640000  3.000000  -.805778
-1.640000  3.040000  -.811175
-1.640000  3.080000  -.867008
-1.640000  3.120000  -.682284
-1.640000  3.160000  -.412304
-1.640000  3.200000  -.654468
-1.640000  3.240000  -.583077
-1.640000  3.280000  -.678404
-1.640000  3.320000  -.584843
-1.640000  3.360000  -.365644
-1.640000  3.400000  -.730444
-1.640000  3.440000  -.224102
-1.640000  3.480000  -.644093
-1.640000  3.520000  -.239161
-1.640000  3.560000  -.201182
-1.640000  3.600000  -.335286
-1.640000  3.640000  -.228623
-1.640000  3.680000  -.340231
-1.640000  3.720000  -.215413
-1.640000  3.760000  -.047599
-1.640000  3.800000  -.154326
-1.640000  3.840000  -.065015
-1.640000  3.880000  .215287
-1.640000  3.920000  -.255741
-1.640000  3.960000  -.099508
-1.640000  4.000000  -.089042
-1.600000  .000000  .111965
-1.600000  .040000  .269187
-1.600000  .080000  .210522
-1.600000  .120000  .226167
-1.600000  .160000  -.027957
-1.600000  .200000  .287247
-1.600000  .240000  -.012640
-1.600000  .280000  .387098
-1.600000  .320000  .285555
-1.600000  .360000  .553149
-1.600000  .400000  .074656
-1.600000  .440000  .308875
-1.600000  .480000  .119906
-1.600000  .520000  .075597
-1.600000  .560000  .099477
-1.600000  .600000  .142480
-1.600000  .640000  -.004842
-1.600000  .680000  .284773
-1.600000  .720000  -.106440
-1.600000  .760000  .157894
-1.600000  .800000  .237765
-1.600000  .840000  .183428
-1.600000  .880000  .004138
-1.600000  .920000  -.152134
-1.600000  .960000  .168003
-1.600000  1.000000  .189933
-1.600000  1.040000  -.100487
-1.600000  1.080000  -.181573
-1.600000  1.120000  .097925
-1.600000  1.160000  -.178956
-1.600000  1.200000  -.070672
-1.600000  1.240000  -.205006
-1.600000  1.280000  -.271228
-1.600000  1.320000  -.360777
-1.600000  1.360000  -.673816
-1.600000  1.400000  -.061706
-1.600000  1.440000  -.148371
-1.600000  1.480000  -.128311
-1.600000  1.520000  -.537902
-1.600000  1.560000  -.282253
-1.600000  1.600000  -.646832
-1.600000  1.640000  -.662762
-1.600000  1.680000  -.751486
-1.600000  1.720000  -.621000
-1.600000  1.760000  -.602478
-1.600000  1.800000  -1.069378
-1.600000  1.840000  -.415978
-1.600000  1.880000  -.722000
-1.600000  1.920000  -1.008511
-1.600000  1.960000  -.632396
-1.600000  2.000000  -.952568
-1.600000  2.040000  -.927644
-1.600000  2.080000  -.675976
-1.600000  2.120000  -1.099759
-1.600000  2.160000  -.912439
-1.600000  2.200000  -.792465
-1.600000  2.240000  -.942602
-1.600000  2.280000  -.982292
-1.600000  2.320000  -.989278
-1.600000  2.360000  -.962120
-1.600000  2.400000  -.857642
-1.600000  2.440000  -.798606
-1.600000  2.480000  -.993456
-1.600000  2.520000  -.575520
-1.600000  2.560000  -.847278
-1.600000  2.600000  -1.016519
-1.600000  2.640000  -.707901
-1.600000  2.680000  -.634696
-1.600000  2.720000  -.779365
-1.600000  2.760000  -1.042925
-1.600000  2.800000  -1.038014
-1.600000  2.840000  -.930909
-1.600000  2.880000  -.952123
-1.600000  2.920000  -.608170
-1.600000  2.960000  -.587227
-1.600000  3.000000  -.494703
-1.600000  3.040000  -.960993
-1.600000  3.080000  -.347350
-1.600000  3.120000  -.142443
-1.600000  3.160000  -.861400
-1.600000  3.200000  -.295044
-1.600000  3.240000  -.438224
-1.600000  3.280000  -.569848
-1.600000  3.320000  -.412035
-1.600000  3.360000  -.357956
-1.600000  3.400000  -.303309
-1.600000  3.440000  -.584867
-1.600000  3.480000  -.429318
-1.600000  3.520000  -.272022
-1.600000  3.560000  -.037347
-1.600000  3.600000  -.377801
-1.600000  3.640000  -.383957
-1.600000  3.680000  -.393079
-1.600000  3.720000  -.510144
-1.600000  3.760000  -.348985
-1.600000  3.800000  -.272548
-1.600000  3.840000  -.253322
-1.600000  3.880000  -.212065
-1.600000  3.920000  -.322868
-1.600000  3.960000  -.153974
-1.600000  4.000000  -.273954
-1.560000  .000000  -.104557
-1.560000  .040000  .029645
-1.560000  .080000  .238589
-1.560000  .120000  .377646
-1.560000  .160000  .110240
-1.560000  .200000  .051169
-1.560000  .240000  .188921
-1.560000  .280000  -.067278
-1.560000  .320000  .079186
-1.560000  .360000  -.014791
-1.560000  .400000  -.317869
-1.560000  .440000  .045832
-1.560000  .480000  -.045210
-1.560000  .520000  .260227
-1.560000  .560000  .164235
-1.560000  .600000  .485074
-1.560000  .640000  .234337
-1.560000  .680000  -.053529
-1.560000  .720000  -.114861
-1.560000  .760000  .153365
-1.560000  .800000  -.071541
-1.560000  .840000  .174923
-1.560000  .880000  .229726
-1.560000  .920000  .031865
-1.560000  .960000  -.055783
-1.560000  1.000000  .090615
-1.560000  1.040000  .155289
-1.560000  1.080000  -.603015
-1.560000  1.120000  -.130359
-1.560000  1.160000  -.098547
-1.560000  1.200000  .297348
-1.560000  1.240000  -.121008
-1.560000  1.280000  -.444503
-1.560000  1.320000  -.136369
-1.560000  1.360000  -.116487
-1.560000  1.400000  -.236687
-1.560000  1.440000  -.140891
-1.560000  1.480000  -.230114
-1.560000  1.520000  -.218126
-1.560000  1.560000  -.220467
-1.560000  1.600000  -.588367
-1.560000  1.640000  -.240529
-1.560000  1.680000  -.461051
-1.560000  1.720000  -.734335
-1.560000  1.760000  -.540700
-1.560000  1.800000  -.089816
-1.560000  1.840000  -.243567
-1.560000  1.880000  -.676088
-1.560000  1.920000  -.654712
-1.560000  1.960000  -.804419
-1.560000  2.000000  -1.000644
-1.560000  2.040000  -.836520
-1.560000  2.080000  -.930573
-1.560000  2.120000  -.625851
-1.560000  2.160000  -.777559
-1.560000  2.200000  -.973860
-1.560000  2.240000  -1.232330
-1.560000  2.280000  -1.062096
-1.560000  2.320000  -.829618
-1.560000  2.360000  -.852549
-1.560000  2.400000  -.901756
-1.560000  2.440000  -1.501106
-1.560000  2.480000  -.980218
-1.560000  2.520000  -.686883
-1.560000  2.560000  -.779396
-1.560000  2.600000  -1.092891
-1.560000  2.640000  -.607252
-1.560000  2.680000  -.963995
-1.560000  2.720000  -.850743
-1.560000  2.760000  -.979523
-1.560000  2.800000  -.409694
-1.560000  2.840000  -.912896
-1.560000  2.880000  -.632460
-1.560000  2.920000  -.399324
-1.560000  2.960000  -.822442
-1.560000  3.000000  -.766555
-1.560000  3.040000  -.465370
-1.560000  3.080000  -.613211
-1.560000  3.120000  -.875095
-1.560000  3.160000  -.412821
-1.560000  3.200000  -.774868
-1.560000  3.240000  -.177545
-1.560000  3.280000  -.558230
-1.560000  3.320000  -.344682
-1.560000  3.360000  -.399882
-1.560000  3.400000  -.401193
-1.560000  3.440000  -.629211
-1.560000  3.480000  -.330096
-1.560000  3.520000  -.346772
-1.560000  3.560000  -.356092
-1.560000  3.600000  -.032166
-1.560000  3.640000  -.273418
-1.560000  3.680000  -.572560
-1.560000  3.720000  -.192055
-1.560000  3.760000  -.274339
-1.560000  3.800000  -.198188
-1.560000  3.840000  -.251085
-1.560000  3.880000  -.331046
-1.560000  3.920000  -.246394
-1.560000  3.960000  -.145466
-1.560000  4.000000  .021510
-1.520000  .000000  .284877
-1.520000  .040000  .479933
-1.520000  .080000  .160972
-1.520000  .120000  .075521
-1.520000  .160000  .011076
-1.520000  .200000  -.134735
-1.520000  .240000  -.220105
-1.520000  .280000  -.011667
-1.520000  .320000  .209861
-1.520000  .360000  .023756
-1.520000  .400000  -.120868
-1.520000  .440000  .066231
-1.520000  .480000  .347646
-1.520000  .520000  .089523
-1.520000  .560000  .337234
-1.520000  .600000  .212310
-1.520000  .640000  .038205
-1.520000  .680000  .119836
-1.520000  .720000  -.150245
-1.520000  .760000  .122094
-1.520000  .800000  .516185
-1.520000  .840000  .198026
-1.520000  .880000  .048549
-1.520000  .920000  -.130214
-1.520000  .960000  -.048904
-1.520000  1.000000  -.064313
-1.520000  1.040000  .168241
-1.520000  1.080000  -.023957
-1.520000  1.120000  -.049704
-1.520000  1.160000  .211626
-1.520000  1.200000  -.130825
-1.520000  1.240000  -.067685
-1.520000  1.280000  -.324000
-1.520000  1.320000  .074900
-1.520000  1.360000  .084817
-1.520000  1.400000  -.214198
-1.520000  1.440000  -.274052
-1.520000  1.480000  -.142598
-1.520000  1.520000  -.060525
-1.520000  1.560000  -.472115
-1.520000  1.600000  -.266492
-1.520000  1.640000  -.592590
-1.520000  1.680000  -.567169
-1.520000  1.720000  -.473495
-1.520000  1.760000  -.286089
-1.520000  1.800000  -.568543
-1.520000  1.840000  -.403079
-1.520000  1.880000  -.809263
-1.520000  1.920000  -.589003
-1.520000  1.960000  -.959711
-1.520000  2.000000  -.689629
-1.520000  2.040000  -.859327
-1.520000  2.080000  -.994904
-1.520000  2.120000  -.838803
-1.520000  2.160000  -.886057
-1.520000  2.200000  -.729488
-1.520000  2.240000  -.802085
-1.520000  2.280000  -.955612
-1.520000  2.320000  -1.187668
-1.520000  2.360000  -1.424737
-1.520000  2.400000  -1.109270
-1.520000  2.440000  -1.038246
-1.520000  2.480000  -1.218558
-1.520000  2.520000  -.770585
-1.520000  2.560000  -1.132199
-1.520000  2.600000  -1.004270
-1.520000  2.640000  -1.271663
-1.520000  2.680000  -.758010
-1.520000  2.720000  -.853338
-1.520000  2.760000  -1.356127
-1.520000  2.800000  -1.026078
-1.520000  2.840000  -.679762
-1.520000  2.880000  -.890245
-1.520000  2.920000  -.671383
-1.520000  2.960000  -.782638
-1.520000  3.000000  -.974415
-1.520000  3.040000  -.502459
-1.520000  3.080000  -.642437
-1.520000  3.120000  -.358192
-1.520000  3.160000  -.204968
-1.520000  3.200000  -.252191
-1.520000  3.240000  -.687979
-1.520000  3.280000  -.267302
-1.520000  3.320000  -.765746
-1.520000  3.360000  -.257975
-1.520000  3.400000  -.265808
-1.520000  3.440000  -.552466
-1.520000  3.480000  -.141291
-1.520000  3.520000  -.479204
-1.520000  3.560000  -.334403
-1.520000  3.600000  -.541487
-1.520000  3.640000  -.378185
-1.520000  3.680000  -.428671
-1.520000  3.720000  -.008447
-1.520000  3.760000  -.473218
-1.520000  3.800000  -.338640
-1.520000  3.840000  -.286940
-1.520000  3.880000  -.287354
-1.520000  3.920000  -.330983
-1.520000  3.960000  -.339765
-1.520000  4.000000  -.311627
-1.480000  .000000  -.220023
-1.480000  .040000  .572766
-1.480000  .080000  -.050799
-1.480000  .120000  -.112554
-1.480000  .160000  .135034
-1.480000  .200000  .094716
-1.480000  .240000  .237170
-1.480000  .280000  .338222
-1.480000  .320000  .124345
-1.480000  .360000  -.105660
-1.480000  .400000  .200455
-1.480000  .440000  .295876
-1.480000  .480000  .236808
-1.480000  .520000  -.153184
-1.480000  .560000  -.059130
-1.480000  .600000  .071101
-1.480000  .640000  .396435
-1.480000  .680000  .067531
-1.480000  .720000  .331943
-1.480000  .760000  .023974
-1.480000  .800000  .061677
-1.480000  .840000  -.004324
-1.480000  .880000  .252119
-1.480000  .920000  .082906
-1.480000  .960000  .126109
-1.480000  1.000000  .158286
-1.480000  1.040000  .061401
-1.480000  1.080000  .137331
-1.480000  1.120000  .285830
-1.480000  1.160000  -.011626
-1.480000  1.200000  -.244159
-1.480000  1.240000  .004692
-1.480000  1.280000  -.061756
-1.480000  1.320000  -.260489
-1.480000  1.360000  -.339050
-1.480000  1.400000  -.238185
-1.480000  1.440000  -.096019
-1.480000  1.480000  -.166222
-1.480000  1.520000  -.200622
-1.480000  1.560000  -.508587
-1.480000  1.600000  -.324493
-1.480000  1.640000  -.484022
-1.480000  1.680000  -.637679
-1.480000  1.720000  -.915594
-1.480000  1.760000  -.704002
-1.480000  1.800000  -.597917
-1.480000  1.840000  -1.013991
-1.480000  1.880000  -.610747
-1.480000  1.920000  -.632883
-1.480000  1.960000  -.927393
-1.480000  2.000000  -.537149
-1.480000  2.040000  -1.088158
-1.480000  2.080000  -.786342
-1.480000  2.120000  -1.233556
-1.480000  2.160000  -.667159
-1.480000  2.200000  -1.006552
-1.480000  2.240000  -1.272501
-1.480000  2.280000  -1.025990
-1.480000  2.320000  -1.206569
-1.480000  2.360000  -1.241074
-1.480000  2.400000  -.904554
-1.480000  2.440000  -1.068729
-1.480000  2.480000  -1.060398
-1.480000  2.520000  -1.133147
-1.480000  2.560000  -1.264572
-1.480000  2.600000  -1.184483
-1.480000  2.640000  -.819154
-1.480000  2.680000  -.733215
-1.480000  2.720000  -1.039273
-1.480000  2.760000  -1.040067
-1.480000  2.800000  -.909847
-1.480000  2.840000  -.976906
-1.480000  2.880000  -.497418
-1.480000  2.920000  -.800944
-1.480000  2.960000  -.777423
-1.480000  3.000000  -.503244
-1.480000  3.040000  -.808960
-1.480000  3.080000  -.533496
-1.480000  3.120000  -.827194
-1.480000  3.160000  -.520043
-1.480000  3.200000  -.170163
-1.480000  3.240000  -.296793
-1.480000  3.280000  -.426869
-1.480000  3.320000  -.625597
-1.480000  3.360000  -.275580
-1.480000  3.400000  -.395390
-1.480000  3.440000  -.247331
-1.480000  3.480000  -.429439
-1.480000  3.520000  -.281845
-1.480000  3.560000  -.582058
-1.480000  3.600000  -.251286
-1.480000  3.640000  -.164538
-1.480000  3.680000  -.459049
-1.480000  3.720000  -.161690
-1.480000  3.760000  -.563723
-1.480000  3.800000  -.298693
-1.480000  3.840000  .038132
-1.480000  3.880000  -.098856
-1.480000  3.920000  -.141168
-1.480000  3.960000  -.103204
-1.480000  4.000000  -.038036
-1.440000  .000000  .544515
-1.440000  .040000  -.083746
-1.440000  .080000  -.011030
-1.440000  .120000  .186032
-1.440000  .160000  .121989
-1.440000  .200000  .065010
-1.440000  .240000  .432681
-1.440000  .280000  -.246663
-1.440000  .320000  .249444
-1.440000  .360000  .116104
-1.440000  .400000  .270105
-1.440000  .440000  .159853
-1.440000  .480000  .090382
-1.440000  .520000  .176599
-1.440000  .560000  .401776
-1.440000  .600000  .307445
-1.440000  .640000  .125363
-1.440000  .680000  .267806
-1.440000  .720000  .243039
-1.440000  .760000  -.096442
-1.440000  .800000  .070710
-1.440000  .840000  .321231
-1.440000  .880000  .401549
-1.440000  .920000  .135338
-1.440000  .960000  -.038770
-1.440000  1.000000  .354157
-1.440000  1.040000  .093782
-1.440000  1.080000  -.028159
-1.440000  1.120000  -.134527
-1.440000  1.160000  -.000964
-1.440000  1.200000  .199148
-1.440000  1.240000  -.415435
-1.440000  1.280000  .090550
-1.440000  1.320000  -.094277
-1.440000  1.360000  -.400822
-1.440000  1.400000  -.397835
-1.440000  1.440000  -.269237
-1.440000  1.480000  -.074112
-1.440000  1.520000  -.018650
-1.440000  1.560000  -.357525
-1.440000  1.600000  -.433444
-1.440000  1.640000  -.631098
-1.440000  1.680000  -.282951
-1.440000  1.720000  -.582675
-1.440000  1.760000  -.675843
-1.440000  1.800000  -.899892
-1.440000  1.840000  -.911365
-1.440000  1.880000  -.742157
-1.440000  1.920000  -.488043
-1.440000  1.960000  -.657581
-1.440000  2.000000  -1.183038
-1.440000  2.040000  -1.457392
-1.440000  2.080000  -.998292
-1.440000  2.120000  -1.188495
-1.440000  2.160000  -.669001
-1.440000  2.200000  -1.363487
-1.440000  2.240000  -1.293714
-1.440000  2.280000  -1.122924
-1.440000  2.320000  -1.317207
-1.440000  2.360000  -1.350221
-1.440000  2.400000  -1.280437
-1.440000  2.440000  -1.021370
-1.440000  2.480000  -1.218703
-1.440000  2.520000  -1.315682
-1.440000  2.560000  -1.380415
-1.440000  2.600000  -1.479020
-1.440000  2.640000  -1.180234
-1.440000  2.680000  -1.289097
-1.440000  2.720000  -1.086506
-1.440000  2.760000  -1.240113
-1.440000  2.800000  -1.147416
-1.440000  2.840000  -.895995
-1.440000  2.880000  -1.010469
-1.440000  2.920000  -.661444
-1.440000  2.960000  -1.226693
-1.440000  3.000000  -.637439
-1.440000  3.040000  -1.087254
-1.440000  3.080000  -1.063251
-1.440000  3.120000  -.875248
-1.440000  3.160000  -.652535
-1.440000  3.200000  -.569530
-1.440000  3.240000  -.476158
-1.440000  3.280000  -.606304
-1.440000  3.320000  -.562139
-1.440000  3.360000  -.556743
-1.440000  3.400000  -.515623
-1.440000  3.440000  .087855
-1.440000  3.480000  -.425328
-1.440000  3.520000  -.047005
-1.440000  3.560000  -.429134
-1.440000  3.600000  -.187599
-1.440000  3.640000  -.351604
-1.440000  3.680000  -.354750
-1.440000  3.720000  -.295748
-1.440000  3.760000  -.364836
-1.440000  3.800000  -.183603
-1.440000  3.840000  -.349633
-1.440000  3.880000  -.302800
-1.440000  3.920000  -.553117
-1.440000  3.960000  .033237
-1.440000  4.000000  -.393260
-1.400000  .000000  .296214
-1.400000  .040000  -.202897
-1.400000  .080000  .152438
-1.400000  .120000  .313733
-1.400000  .160000  -.258424
-1.400000  .200000  .430650
-1.400000  .240000  .220185
-1.400000  .280000  .592044
-1.400000  .320000  -.013824
-1.400000  .360000  .036017
-1.400000  .400000  .439293
-1.400000  .440000  .367466
-1.400000  .480000  -.210409
-1.400000  .520000  .284034
-1.400000  .560000  .121499
-1.400000  .600000  .298059
-1.400000  .640000  .162057
-1.400000  .680000  .476396
-1.400000  .720000  .147971
-1.400000  .760000  .175766
-1.400000  .800000  -.106832
-1.400000  .840000  .305894
-1.400000  .880000  .084315
-1.400000  .920000  .455016
-1.400000  .960000  .334754
-1.400000  1.000000  .226097
-1.400000  1.040000  .220529
-1.400000  1.080000  .417125
-1.400000  1.120000  .191872
-1.400000  1.160000  -.148226
-1.400000  1.200000  -.129324
-1.400000  1.240000  .060092
-1.400000  1.280000  .103541
-1.400000  1.320000  -.319205
-1.400000  1.360000  -.060048
-1.400000  1.400000  -.403450
-1.400000  1.440000  -.118973
-1.400000  1.480000  .077508
-1.400000  1.520000  -.390277
-1.400000  1.560000  -.389465
-1.400000  1.600000  -.583355
-1.400000  1.640000  -.636160
-1.400000  1.680000  -.603341
-1.400000  1.720000  -.691375
-1.400000  1.760000  -.852259
-1.400000  1.800000  -.758444
-1.400000  1.840000  -.656563
-1.400000  1.880000  -.867566
-1.400000  1.920000  -.784819
-1.400000  1.960000  -.803898
-1.400000  2.000000  -1.266613
-1.400000  2.040000  -1.063982
-1.400000  2.080000  -1.172096
-1.400000  2.120000  -1.243061
-1.400000  2.160000  -1.228149
-1.400000  2.200000  -.737421
-1.400000  2.240000  -1.256960
-1.400000  2.280000  -1.467457
-1.400000  2.320000  -1.290803
-1.400000  2.360000  -1.051633
-1.400000  2.400000  -1.305648
-1.400000  2.440000  -1.298436
-1.400000  2.480000  -1.338516
-1.400000  2.520000  -1.535609
-1.400000  2.560000  -.909739
-1.400000  2.600000  -1.122384
-1.400000  2.640000  -1.472094
-1.400000  2.680000  -.889931
-1.400000  2.720000  -1.070527
-1.400000  2.760000  -1.099818
-1.400000  2.800000  -1.242680
-1.400000  2.840000  -.972728
-1.400000  2.880000  -.762732
-1.400000  2.920000  -.951476
-1.400000  2.960000  -.711207
-1.400000  3.000000  -1.012022
-1.400000  3.040000  -.658067
-1.400000  3.080000  -.401033
-1.400000  3.120000  -.373775
-1.400000  3.160000  -.546206
-1.400000  3.200000  -.713501
-1.400000  3.240000  -.832572
-1.400000  3.280000  -.479248
-1.400000  3.320000  -.519373
-1.400000  3.360000  -.358934
-1.400000  3.400000  -.226398
-1.400000  3.440000  -.318779
-1.400000  3.480000  -.331321
-1.400000  3.520000  -.307864
-1.400000  3.560000  -.236860
-1.400000  3.600000  -.584009
-1.400000  3.640000  -.386152
-1.400000  3.680000  .230665
-1.400000  3.720000  -.096261
-1.400000  3.760000  -.349172
-1.400000  3.800000  -.052960
-1.400000  3.840000  -.395213
-1.400000  3.880000  -.292601
-1.400000  3.920000  -.115859
-1.400000  3.960000  -.049468
-1.400000  4.000000  -.464803
-1.360000  .000000  -.037819
-1.360000  .040000  .554701
-1.360000  .080000  .406242
-1.360000  .120000  .149490
-1.360000  .160000  .714440
-1.360000  .200000  .472531
-1.360000  .240000  .006669
-1.360000  .280000  .158957
-1.360000  .320000  .180457
-1.360000  .360000  .442624
-1.360000  .400000  .358485
-1.360000  .440000  .068027
-1.360000  .480000  .276250
-1.360000  .520000  .053072
-1.360000  .560000  .094957
-1.360000  .600000  .316638
-1.360000  .640000  .006570
-1.360000  .680000  .037197
-1.360000  .720000  .255205
-1.360000  .760000  .275659
-1.360000  .800000  .178069
-1.360000  .840000  .198068
-1.360000  .880000  -.478338
-1.360000  .920000  .372948
-1.360000  .960000  .352290
-1.360000  1.000000  -.094257
-1.360000  1.040000  -.133698
-1.360000  1.080000  -.062068
-1.360000  1.120000  -.044946
-1.360000  1.160000  -.205397
-1.360000  1.200000  .094468
-1.360000  1.240000  -.194143
-1.360000  1.280000  -.143772
-1.360000  1.320000  .039778
-1.360000  1.360000  -.123931
-1.360000  1.400000  -.230490
-1.360000  1.440000  -.116523
-1.360000  1.480000  -.172076
-1.360000  1.520000  -.201451
-1.360000  1.560000  -.440680
-1.360000  1.600000  -.273525
-1.360000  1.640000  -.328087
-1.360000  1.680000  -.727740
-1.360000  1.720000  -.754116
-1.360000  1.760000  -.885851
-1.360000  1.800000  -.461699
-1.360000  1.840000  -.890611
-1.360000  1.880000  -.760705
-1.360000  1.920000  -1.002843
-1.360000  1.960000  -1.169291
-1.360000  2.000000  -.720584
-1.360000  2.040000  -1.264987
-1.360000  2.080000  -1.346471
-1.360000  2.120000  -.852265
-1.360000  2.160000  -1.174346
-1.360000  2.200000  -1.579465
-1.360000  2.240000  -1.427615
-1.360000  2.280000  -.832901
-1.360000  2.320000  -1.223403
-1.360000  2.360000  -1.258523
-1.360000  2.400000  -1.131287
-1.360000  2.440000  -1.388706
-1.360000  2.480000  -1.088875
-1.360000  2.520000  -1.692135
-1.360000  2.560000  -.908208
-1.360000  2.600000  -1.457730
-1.360000  2.640000  -1.106716
-1.360000  2.680000  -1.415228
-1.360000  2.720000  -1.279335
-1.360000  2.760000  -1.161281
-1.360000  2.800000  -1.171280
-1.360000  2.840000  -.818959
-1.360000  2.880000  -.785504
-1.360000  2.920000  -.949420
-1.360000  2.960000  -1.059218
-1.360000  3.000000  -.832305
-1.360000  3.040000  -.839169
-1.360000  3.080000  -1.194447
-1.360000  3.120000  -.603192
-1.360000  3.160000  -.613818
-1.360000  3.200000  -.683768
-1.360000  3.240000  -.625438
-1.360000  3.280000  -.562416
-1.360000  3.320000  -.629171
-1.360000  3.360000  -.587707
-1.360000  3.400000  -.586185
-1.360000  3.440000  -.476357
-1.360000  3.480000  -.475480
-1.360000  3.520000  -.404839
-1.360000  3.560000  -.249569
-1.360000  3.600000  -.399816
-1.360000  3.640000  -.277038
-1.360000  3.680000  -.003854
-1.360000  3.720000  -.109552
-1.360000  3.760000  -.196537
-1.360000  3.800000  -.462544
-1.360000  3.840000  -.326905
-1.360000  3.880000  -.120938
-1.360000  3.920000  -.259374
-1.360000  3.960000  -.090191
-1.360000  4.000000  .083273
-1.320000  .000000  .093678
-1.320000  .040000  .446301
-1.320000  .080000  .245098
-1.320000  .120000  .555082
-1.320000  .160000  -.056289
-1.320000  .200000  .457617
-1.320000  .240000  .332239
-1.320000  .280000  -.045297
-1.320000  .320000  .204885
-1.320000  .360000  .380830
-1.320000  .400000  -.029070
-1.320000  .440000  .325072
-1.320000  .480000  .131473
-1.320000  .520000  .377623
-1.320000  .560000  .099931
-1.320000  .600000  .553564
-1.320000  .640000  .213227
-1.320000  .680000  .279590
-1.320000  .720000  .378990
-1.320000  .760000  .343965
-1.320000  .800000  .154384
-1.320000  .840000  .309300
-1.320000  .880000  .145545
-1.320000  .920000  .529498
